ply
format ascii 1.0
element vertex 1135
property float x
property float y
property float z
property uchar red
property uchar green
property uchar blue
end_header
-0.934783 -0.217391 -6.260870 209 155 129 
-0.904255 -0.212766 -6.127660 213 153 127 
-0.893617 -0.212766 -6.127660 195 138 114 
-0.873684 -0.210526 -6.063158 168 122 107 
-0.863158 -0.210526 -6.063158 165 121 100 
-0.843750 -0.208333 -6.000000 174 127 110 
-0.824742 -0.206186 -5.938144 176 123 105 
-0.806122 -0.204082 -5.877551 186 141 126 
-0.795918 -0.204082 -5.877551 187 136 119 
-0.777778 -0.202020 -5.818182 189 144 126 
-0.767677 -0.202020 -5.818182 194 144 122 
-0.750000 -0.200000 -5.760000 191 140 115 
-0.740000 -0.200000 -5.760000 195 143 124 
-0.722772 -0.198020 -5.702971 193 143 120 
-0.705882 -0.196078 -5.647059 204 149 130 
-0.696078 -0.196078 -5.647059 203 153 133 
-0.686275 -0.196078 -5.647059 210 161 140 
-0.676471 -0.196078 -5.647059 208 156 135 
-0.660194 -0.194175 -5.592233 210 159 138 
-0.650485 -0.194175 -5.592233 208 157 136 
-0.640777 -0.194175 -5.592233 210 159 138 
-0.631068 -0.194175 -5.592233 205 153 132 
-0.621359 -0.194175 -5.592233 210 154 137 
-0.605769 -0.192308 -5.538462 206 154 133 
-0.596154 -0.192308 -5.538462 209 157 136 
-0.586538 -0.192308 -5.538462 210 159 140 
-0.576923 -0.192308 -5.538462 207 156 135 
-0.567308 -0.192308 -5.538462 206 154 132 
-0.552381 -0.190476 -5.485714 203 151 129 
-0.542857 -0.190476 -5.485714 203 152 127 
-0.533333 -0.190476 -5.485714 202 150 126 
-0.523810 -0.190476 -5.485714 199 145 121 
-0.514286 -0.190476 -5.485714 199 145 121 
-0.504762 -0.190476 -5.485714 198 145 121 
-0.495238 -0.190476 -5.485714 194 136 114 
-0.481132 -0.188679 -5.433962 194 137 114 
-0.471698 -0.188679 -5.433962 193 137 114 
-0.462264 -0.188679 -5.433962 193 138 117 
-0.452830 -0.188679 -5.433962 194 140 116 
-0.443396 -0.188679 -5.433962 187 133 109 
-0.433962 -0.188679 -5.433962 191 135 110 
-0.424528 -0.188679 -5.433962 194 138 113 
-0.411215 -0.186916 -5.383178 191 135 108 
-0.401869 -0.186916 -5.383178 189 133 108 
-0.392523 -0.186916 -5.383178 187 131 106 
-0.383178 -0.186916 -5.383178 181 127 101 
-0.373832 -0.186916 -5.383178 184 130 104 
-0.364486 -0.186916 -5.383178 182 130 106 
-0.355140 -0.186916 -5.383178 173 121 97 
-0.342593 -0.185185 -5.333333 166 114 90 
-0.333333 -0.185185 -5.333333 163 109 83 
-0.324074 -0.185185 -5.333333 167 111 84 
-0.314815 -0.185185 -5.333333 170 112 88 
-0.302752 -0.183486 -5.284404 169 111 90 
-0.293578 -0.183486 -5.284404 170 107 90 
-0.284404 -0.183486 -5.284404 169 103 87 
-0.275229 -0.183486 -5.284404 171 106 90 
-0.266055 -0.183486 -5.284404 169 97 83 
-0.256881 -0.183486 -5.284404 165 102 85 
-0.247706 -0.183486 -5.284404 164 101 85 
-0.238532 -0.183486 -5.284404 168 105 85 
-0.229358 -0.183486 -5.284404 157 95 76 
-0.220183 -0.183486 -5.284404 167 102 78 
-0.211009 -0.183486 -5.284404 168 102 80 
-0.201835 -0.183486 -5.284404 164 109 86 
-0.192661 -0.183486 -5.284404 164 109 88 
-0.183486 -0.183486 -5.284404 158 101 84 
-0.174312 -0.183486 -5.284404 158 97 79 
-0.165138 -0.183486 -5.284404 155 96 78 
-0.155963 -0.183486 -5.284404 154 99 80 
-0.146789 -0.183486 -5.284404 137 82 65 
-0.137615 -0.183486 -5.284404 158 103 86 
-0.128440 -0.183486 -5.284404 146 94 76 
-0.119266 -0.183486 -5.284404 158 102 79 
-0.110092 -0.183486 -5.284404 155 100 79 
-0.100917 -0.183486 -5.284404 158 103 82 
-0.091743 -0.183486 -5.284404 156 104 83 
-0.082569 -0.183486 -5.284404 153 99 79 
-0.073394 -0.183486 -5.284404 156 100 80 
-0.063636 -0.181818 -5.236363 153 98 78 
-0.054545 -0.181818 -5.236363 139 89 72 
-0.045455 -0.181818 -5.236363 130 85 69 
-0.036364 -0.181818 -5.236363 136 88 71 
-0.027273 -0.181818 -5.236363 138 94 77 
-0.018349 -0.183486 -5.284404 137 94 75 
-0.009174 -0.183486 -5.284404 131 80 60 
0.000000 -0.183486 -5.284404 132 83 63 
0.009174 -0.183486 -5.284404 138 87 68 
0.018349 -0.183486 -5.284404 142 92 70 
0.027523 -0.183486 -5.284404 143 92 70 
0.036697 -0.183486 -5.284404 149 97 75 
0.045872 -0.183486 -5.284404 161 110 90 
0.055046 -0.183486 -5.284404 151 99 78 
0.064815 -0.185185 -5.333333 164 107 84 
0.074074 -0.185185 -5.333333 159 103 83 
0.083333 -0.185185 -5.333333 162 112 94 
0.092593 -0.185185 -5.333333 160 107 89 
0.101852 -0.185185 -5.333333 159 108 89 
0.111111 -0.185185 -5.333333 158 102 82 
0.120370 -0.185185 -5.333333 154 102 80 
0.129630 -0.185185 -5.333333 150 93 73 
0.138889 -0.185185 -5.333333 148 90 69 
0.148148 -0.185185 -5.333333 143 83 65 
0.157407 -0.185185 -5.333333 145 86 68 
0.166667 -0.185185 -5.333333 145 85 70 
0.175926 -0.185185 -5.333333 140 85 69 
0.185185 -0.185185 -5.333333 153 94 82 
0.194444 -0.185185 -5.333333 150 94 80 
0.203704 -0.185185 -5.333333 150 89 77 
0.212963 -0.185185 -5.333333 159 98 80 
0.222222 -0.185185 -5.333333 163 102 83 
0.231481 -0.185185 -5.333333 172 115 93 
0.240741 -0.185185 -5.333333 165 113 92 
0.250000 -0.185185 -5.333333 173 125 103 
0.259259 -0.185185 -5.333333 173 123 100 
0.268519 -0.185185 -5.333333 170 120 95 
0.280374 -0.186916 -5.383178 165 113 89 
0.289720 -0.186916 -5.383178 168 114 88 
0.299065 -0.186916 -5.383178 171 120 93 
0.308411 -0.186916 -5.383178 173 123 96 
0.317757 -0.186916 -5.383178 178 128 98 
0.327103 -0.186916 -5.383178 185 131 105 
0.336449 -0.186916 -5.383178 185 132 101 
0.345794 -0.186916 -5.383178 188 134 108 
0.355140 -0.186916 -5.383178 187 136 109 
0.364486 -0.186916 -5.383178 190 138 114 
0.373832 -0.186916 -5.383178 191 139 115 
0.383178 -0.186916 -5.383178 192 139 113 
0.392523 -0.186916 -5.383178 193 142 115 
0.401869 -0.186916 -5.383178 186 135 108 
0.411215 -0.186916 -5.383178 189 138 112 
0.420561 -0.186916 -5.383178 194 144 118 
0.429907 -0.186916 -5.383178 193 142 116 
0.439252 -0.186916 -5.383178 195 143 119 
0.448598 -0.186916 -5.383178 190 141 119 
0.457944 -0.186916 -5.383178 193 143 119 
0.467290 -0.186916 -5.383178 191 137 109 
0.481132 -0.188679 -5.433962 192 142 115 
0.490566 -0.188679 -5.433962 192 141 117 
0.500000 -0.188679 -5.433962 194 142 118 
0.514286 -0.190476 -5.485714 191 141 114 
0.523810 -0.190476 -5.485714 191 140 112 
0.533333 -0.190476 -5.485714 193 142 115 
0.542857 -0.190476 -5.485714 195 144 115 
0.557692 -0.192308 -5.538462 196 149 123 
0.567308 -0.192308 -5.538462 194 148 124 
0.576923 -0.192308 -5.538462 193 143 118 
0.592233 -0.194175 -5.592233 201 151 128 
0.601942 -0.194175 -5.592233 201 151 128 
0.617647 -0.196078 -5.647059 194 144 121 
0.627451 -0.196078 -5.647059 195 145 122 
0.637255 -0.196078 -5.647059 193 143 119 
0.647059 -0.196078 -5.647059 192 140 116 
0.670000 -0.200000 -5.760000 189 140 118 
0.680000 -0.200000 -5.760000 184 135 112 
0.696970 -0.202020 -5.818182 184 134 111 
0.707071 -0.202020 -5.818182 181 130 106 
0.717172 -0.202020 -5.818182 179 131 109 
0.734694 -0.204082 -5.877551 174 125 98 
0.744898 -0.204082 -5.877551 175 129 105 
0.762887 -0.206186 -5.938144 170 126 102 
0.773196 -0.206186 -5.938144 172 127 106 
0.791667 -0.208333 -6.000000 167 125 104 
0.810526 -0.210526 -6.063158 162 119 99 
0.821053 -0.210526 -6.063158 158 114 93 
0.840426 -0.212766 -6.127660 156 116 92 
0.869565 -0.217391 -6.260870 152 111 86 
0.880435 -0.217391 -6.260870 155 118 98 
0.901099 -0.219780 -6.329670 161 114 93 
0.922222 -0.222222 -6.400000 158 107 87 
0.933333 -0.222222 -6.400000 116 70 57 
0.944444 -0.222222 -6.400000 141 128 124 
0.966292 -0.224719 -6.471910 129 118 116 
0.977528 -0.224719 -6.471910 117 107 106 
1.000000 -0.227273 -6.545455 138 124 123 
1.011364 -0.227273 -6.545455 162 111 96 
-1.033708 -0.235955 -6.471910 158 121 110 
-1.022472 -0.235955 -6.471910 109 61 48 
-1.000000 -0.233333 -6.400000 126 76 63 
-0.988889 -0.233333 -6.400000 173 128 108 
-0.967033 -0.230769 -6.329670 199 148 120 
-0.945652 -0.228261 -6.260870 192 136 113 
-0.934783 -0.228261 -6.260870 190 134 111 
-0.913979 -0.225806 -6.193548 202 142 116 
-0.893617 -0.223404 -6.127660 204 145 117 
-0.882979 -0.223404 -6.127660 164 118 101 
-0.863158 -0.221053 -6.063158 169 123 103 
-0.843750 -0.218750 -6.000000 171 126 109 
-0.824742 -0.216495 -5.938144 176 128 109 
-0.806122 -0.214286 -5.877551 184 137 122 
-0.795918 -0.214286 -5.877551 187 141 124 
-0.777778 -0.212121 -5.818182 191 145 128 
-0.767677 -0.212121 -5.818182 191 141 122 
-0.750000 -0.210000 -5.760000 193 142 120 
-0.740000 -0.210000 -5.760000 196 144 122 
-0.722772 -0.207921 -5.702971 192 139 117 
-0.705882 -0.205882 -5.647059 199 147 127 
-0.696078 -0.205882 -5.647059 203 152 132 
-0.686275 -0.205882 -5.647059 208 161 141 
-0.676471 -0.205882 -5.647059 210 158 138 
-0.660194 -0.203883 -5.592233 212 158 137 
-0.650485 -0.203883 -5.592233 207 155 134 
-0.640777 -0.203883 -5.592233 211 159 138 
-0.631068 -0.203883 -5.592233 212 161 142 
-0.621359 -0.203883 -5.592233 208 156 135 
-0.605769 -0.201923 -5.538462 206 155 134 
-0.596154 -0.201923 -5.538462 211 160 139 
-0.586538 -0.201923 -5.538462 207 157 135 
-0.576923 -0.201923 -5.538462 210 162 142 
-0.567308 -0.201923 -5.538462 206 154 133 
-0.557692 -0.201923 -5.538462 205 153 131 
-0.542857 -0.200000 -5.485714 207 156 132 
-0.533333 -0.200000 -5.485714 199 147 123 
-0.523810 -0.200000 -5.485714 200 147 123 
-0.514286 -0.200000 -5.485714 199 145 119 
-0.504762 -0.200000 -5.485714 195 138 113 
-0.495238 -0.200000 -5.485714 199 140 119 
-0.481132 -0.198113 -5.433962 196 140 118 
-0.471698 -0.198113 -5.433962 196 140 118 
-0.462264 -0.198113 -5.433962 194 139 115 
-0.452830 -0.198113 -5.433962 193 139 115 
-0.443396 -0.198113 -5.433962 193 140 116 
-0.433962 -0.198113 -5.433962 193 141 117 
-0.424528 -0.198113 -5.433962 191 135 112 
-0.411215 -0.196262 -5.383178 186 130 103 
-0.401869 -0.196262 -5.383178 191 135 110 
-0.392523 -0.196262 -5.383178 186 130 103 
-0.383178 -0.196262 -5.383178 184 130 102 
-0.373832 -0.196262 -5.383178 183 130 104 
-0.364486 -0.196262 -5.383178 174 122 98 
-0.355140 -0.196262 -5.383178 174 122 98 
-0.342593 -0.194444 -5.333333 171 119 95 
-0.333333 -0.194444 -5.333333 170 118 94 
-0.324074 -0.194444 -5.333333 174 122 98 
-0.314815 -0.194444 -5.333333 172 117 93 
-0.302752 -0.192661 -5.284404 174 112 91 
-0.293578 -0.192661 -5.284404 172 108 90 
-0.284404 -0.192661 -5.284404 176 109 93 
-0.275229 -0.192661 -5.284404 172 110 95 
-0.266055 -0.192661 -5.284404 169 100 86 
-0.256881 -0.192661 -5.284404 171 103 89 
-0.247706 -0.192661 -5.284404 169 101 86 
-0.238532 -0.192661 -5.284404 165 102 84 
-0.229358 -0.192661 -5.284404 175 103 83 
-0.220183 -0.192661 -5.284404 167 100 81 
-0.211009 -0.192661 -5.284404 169 111 90 
-0.201835 -0.192661 -5.284404 171 116 96 
-0.192661 -0.192661 -5.284404 170 115 94 
-0.183486 -0.192661 -5.284404 170 114 97 
-0.174312 -0.192661 -5.284404 163 104 88 
-0.165138 -0.192661 -5.284404 165 108 92 
-0.155963 -0.192661 -5.284404 168 115 99 
-0.146789 -0.192661 -5.284404 168 112 95 
-0.137615 -0.192661 -5.284404 165 110 90 
-0.128440 -0.192661 -5.284404 166 113 91 
-0.119266 -0.192661 -5.284404 165 114 92 
-0.110092 -0.192661 -5.284404 168 117 95 
-0.100917 -0.192661 -5.284404 165 115 92 
-0.091743 -0.192661 -5.284404 164 114 91 
-0.082569 -0.192661 -5.284404 162 112 89 
-0.073394 -0.192661 -5.284404 160 108 87 
-0.064220 -0.192661 -5.284404 158 107 86 
-0.055046 -0.192661 -5.284404 162 106 86 
-0.045872 -0.192661 -5.284404 157 105 84 
-0.036697 -0.192661 -5.284404 151 102 82 
-0.027523 -0.192661 -5.284404 147 98 78 
-0.018349 -0.192661 -5.284404 148 97 76 
-0.009174 -0.192661 -5.284404 145 95 74 
0.000000 -0.192661 -5.284404 134 84 63 
0.009174 -0.192661 -5.284404 147 96 75 
0.018349 -0.192661 -5.284404 148 97 76 
0.027523 -0.192661 -5.284404 151 101 78 
0.036697 -0.192661 -5.284404 156 106 79 
0.045872 -0.192661 -5.284404 159 108 82 
0.055556 -0.194444 -5.333333 170 119 98 
0.064815 -0.194444 -5.333333 161 112 92 
0.074074 -0.194444 -5.333333 167 120 100 
0.083333 -0.194444 -5.333333 163 115 95 
0.092593 -0.194444 -5.333333 163 110 92 
0.101852 -0.194444 -5.333333 161 110 91 
0.111111 -0.194444 -5.333333 156 99 80 
0.120370 -0.194444 -5.333333 153 96 77 
0.129630 -0.194444 -5.333333 150 91 73 
0.138889 -0.194444 -5.333333 146 87 70 
0.148148 -0.194444 -5.333333 152 95 78 
0.157407 -0.194444 -5.333333 148 92 75 
0.166667 -0.194444 -5.333333 151 95 78 
0.175926 -0.194444 -5.333333 158 101 88 
0.185185 -0.194444 -5.333333 156 100 85 
0.194444 -0.194444 -5.333333 159 101 87 
0.203704 -0.194444 -5.333333 160 98 83 
0.212963 -0.194444 -5.333333 166 103 86 
0.222222 -0.194444 -5.333333 163 100 82 
0.233645 -0.196262 -5.383178 173 117 92 
0.242991 -0.196262 -5.383178 171 119 97 
0.252336 -0.196262 -5.383178 177 127 104 
0.261682 -0.196262 -5.383178 172 124 101 
0.271028 -0.196262 -5.383178 172 123 99 
0.280374 -0.196262 -5.383178 171 120 93 
0.289720 -0.196262 -5.383178 166 115 87 
0.299065 -0.196262 -5.383178 169 118 89 
0.308411 -0.196262 -5.383178 171 120 91 
0.317757 -0.196262 -5.383178 178 127 98 
0.327103 -0.196262 -5.383178 180 129 102 
0.336449 -0.196262 -5.383178 183 132 105 
0.345794 -0.196262 -5.383178 185 134 107 
0.355140 -0.196262 -5.383178 187 135 108 
0.364486 -0.196262 -5.383178 188 134 108 
0.373832 -0.196262 -5.383178 187 133 105 
0.383178 -0.196262 -5.383178 188 137 110 
0.392523 -0.196262 -5.383178 187 134 108 
0.401869 -0.196262 -5.383178 185 131 105 
0.411215 -0.196262 -5.383178 191 139 112 
0.420561 -0.196262 -5.383178 190 139 112 
0.429907 -0.196262 -5.383178 189 138 111 
0.439252 -0.196262 -5.383178 196 141 120 
0.448598 -0.196262 -5.383178 192 140 118 
0.457944 -0.196262 -5.383178 190 142 119 
0.467290 -0.196262 -5.383178 191 143 120 
0.481132 -0.198113 -5.433962 189 139 116 
0.490566 -0.198113 -5.433962 192 144 121 
0.500000 -0.198113 -5.433962 190 140 113 
0.514286 -0.200000 -5.485714 192 142 117 
0.523810 -0.200000 -5.485714 193 142 120 
0.533333 -0.200000 -5.485714 191 141 118 
0.542857 -0.200000 -5.485714 199 149 124 
0.557692 -0.201923 -5.538462 195 148 122 
0.567308 -0.201923 -5.538462 195 149 125 
0.576923 -0.201923 -5.538462 192 146 120 
0.592233 -0.203883 -5.592233 192 146 122 
0.601942 -0.203883 -5.592233 197 149 126 
0.617647 -0.205882 -5.647059 194 146 123 
0.627451 -0.205882 -5.647059 192 143 120 
0.637255 -0.205882 -5.647059 191 140 119 
0.653465 -0.207921 -5.702971 188 134 109 
0.670000 -0.210000 -5.760000 191 142 120 
0.680000 -0.210000 -5.760000 187 138 115 
0.696970 -0.212121 -5.818182 186 134 114 
0.707071 -0.212121 -5.818182 184 133 114 
0.717172 -0.212121 -5.818182 180 132 110 
0.734694 -0.214286 -5.877551 172 125 101 
0.744898 -0.214286 -5.877551 174 132 107 
0.762887 -0.216495 -5.938144 168 124 98 
0.781250 -0.218750 -6.000000 168 125 103 
0.791667 -0.218750 -6.000000 163 117 96 
0.810526 -0.221053 -6.063158 159 115 93 
0.829787 -0.223404 -6.127660 157 115 90 
0.849462 -0.225806 -6.193548 156 115 92 
0.869565 -0.228261 -6.260870 152 112 89 
0.880435 -0.228261 -6.260870 152 113 93 
0.901099 -0.230769 -6.329670 145 93 74 
0.922222 -0.233333 -6.400000 132 86 68 
0.933333 -0.233333 -6.400000 159 128 116 
0.955056 -0.235955 -6.471910 152 141 139 
0.966292 -0.235955 -6.471910 131 119 119 
0.977528 -0.235955 -6.471910 116 106 105 
1.000000 -0.238636 -6.545455 214 179 166 
1.011364 -0.238636 -6.545455 200 175 165 
-1.033708 -0.247191 -6.471910 202 200 200 
-1.022472 -0.247191 -6.471910 88 75 74 
-1.011236 -0.247191 -6.471910 103 64 52 
-0.988889 -0.244444 -6.400000 137 90 73 
-0.967033 -0.241758 -6.329670 190 142 120 
-0.945652 -0.239130 -6.260870 203 147 122 
-0.934783 -0.239130 -6.260870 205 150 125 
-0.923913 -0.239130 -6.260870 202 146 121 
-0.903226 -0.236559 -6.193548 209 153 129 
-0.882979 -0.234043 -6.127660 166 128 113 
-0.863158 -0.231579 -6.063158 168 124 104 
-0.843750 -0.229167 -6.000000 166 115 97 
-0.824742 -0.226804 -5.938144 175 128 111 
-0.806122 -0.224490 -5.877551 185 141 124 
-0.795918 -0.224490 -5.877551 187 142 125 
-0.777778 -0.222222 -5.818182 190 142 126 
-0.767677 -0.222222 -5.818182 188 137 122 
-0.750000 -0.220000 -5.760000 195 145 123 
-0.740000 -0.220000 -5.760000 194 143 123 
-0.722772 -0.217822 -5.702971 194 143 123 
-0.705882 -0.215686 -5.647059 200 147 131 
-0.696078 -0.215686 -5.647059 201 151 131 
-0.686275 -0.215686 -5.647059 210 160 140 
-0.676471 -0.215686 -5.647059 209 158 137 
-0.660194 -0.213592 -5.592233 208 153 132 
-0.650485 -0.213592 -5.592233 211 156 136 
-0.640777 -0.213592 -5.592233 211 156 136 
-0.631068 -0.213592 -5.592233 207 152 132 
-0.621359 -0.213592 -5.592233 211 158 137 
-0.605769 -0.211538 -5.538462 202 151 130 
-0.596154 -0.211538 -5.538462 209 158 137 
-0.586538 -0.211538 -5.538462 204 154 131 
-0.576923 -0.211538 -5.538462 210 158 137 
-0.567308 -0.211538 -5.538462 205 150 128 
-0.557692 -0.211538 -5.538462 201 148 120 
-0.542857 -0.209524 -5.485714 202 150 124 
-0.533333 -0.209524 -5.485714 201 149 125 
-0.523810 -0.209524 -5.485714 202 150 126 
-0.514286 -0.209524 -5.485714 202 148 122 
-0.504762 -0.209524 -5.485714 196 138 116 
-0.495238 -0.209524 -5.485714 195 139 116 
-0.481132 -0.207547 -5.433962 196 142 118 
-0.471698 -0.207547 -5.433962 195 141 117 
-0.462264 -0.207547 -5.433962 196 142 118 
-0.452830 -0.207547 -5.433962 195 141 117 
-0.443396 -0.207547 -5.433962 194 140 116 
-0.433962 -0.207547 -5.433962 191 137 113 
-0.424528 -0.207547 -5.433962 187 131 107 
-0.411215 -0.205607 -5.383178 190 134 107 
-0.401869 -0.205607 -5.383178 184 128 103 
-0.392523 -0.205607 -5.383178 184 131 107 
-0.383178 -0.205607 -5.383178 187 136 110 
-0.373832 -0.205607 -5.383178 183 131 107 
-0.364486 -0.205607 -5.383178 174 120 96 
-0.355140 -0.205607 -5.383178 173 120 93 
-0.342593 -0.203704 -5.333333 171 120 93 
-0.333333 -0.203704 -5.333333 175 124 100 
-0.324074 -0.203704 -5.333333 179 129 106 
-0.314815 -0.203704 -5.333333 179 127 105 
-0.302752 -0.201835 -5.284404 179 119 100 
-0.293578 -0.201835 -5.284404 178 114 93 
-0.284404 -0.201835 -5.284404 169 104 87 
-0.275229 -0.201835 -5.284404 175 112 95 
-0.266055 -0.201835 -5.284404 174 112 97 
-0.256881 -0.201835 -5.284404 170 104 90 
-0.247706 -0.201835 -5.284404 167 99 86 
-0.238532 -0.201835 -5.284404 171 107 94 
-0.229358 -0.201835 -5.284404 170 104 88 
-0.220183 -0.201835 -5.284404 170 104 88 
-0.211009 -0.201835 -5.284404 170 112 93 
-0.201835 -0.201835 -5.284404 172 115 96 
-0.192661 -0.201835 -5.284404 173 118 97 
-0.183486 -0.201835 -5.284404 172 119 102 
-0.174312 -0.201835 -5.284404 172 114 100 
-0.165138 -0.201835 -5.284404 171 111 100 
-0.155963 -0.201835 -5.284404 172 117 102 
-0.146789 -0.201835 -5.284404 179 128 109 
-0.137615 -0.201835 -5.284404 173 125 103 
-0.128440 -0.201835 -5.284404 172 122 98 
-0.119266 -0.201835 -5.284404 173 125 103 
-0.110092 -0.201835 -5.284404 172 124 102 
-0.100917 -0.201835 -5.284404 171 123 101 
-0.091743 -0.201835 -5.284404 165 118 93 
-0.082569 -0.201835 -5.284404 168 121 97 
-0.073394 -0.201835 -5.284404 164 118 94 
-0.064220 -0.201835 -5.284404 160 112 89 
-0.055046 -0.201835 -5.284404 158 107 86 
-0.045872 -0.201835 -5.284404 151 103 83 
-0.036697 -0.201835 -5.284404 153 106 88 
-0.027523 -0.201835 -5.284404 156 108 88 
-0.018349 -0.201835 -5.284404 153 105 85 
-0.009174 -0.201835 -5.284404 152 105 85 
0.000000 -0.201835 -5.284404 155 108 88 
0.009174 -0.201835 -5.284404 151 105 82 
0.018349 -0.201835 -5.284404 158 110 87 
0.027523 -0.201835 -5.284404 164 114 91 
0.036697 -0.201835 -5.284404 162 111 84 
0.045872 -0.201835 -5.284404 165 112 88 
0.055556 -0.203704 -5.333333 166 116 94 
0.064815 -0.203704 -5.333333 166 119 98 
0.074074 -0.203704 -5.333333 167 120 100 
0.083333 -0.203704 -5.333333 169 122 102 
0.092593 -0.203704 -5.333333 164 117 97 
0.101852 -0.203704 -5.333333 162 111 90 
0.111111 -0.203704 -5.333333 156 103 82 
0.120370 -0.203704 -5.333333 154 95 77 
0.129630 -0.203704 -5.333333 153 94 77 
0.138889 -0.203704 -5.333333 153 92 74 
0.148148 -0.203704 -5.333333 152 93 75 
0.157407 -0.203704 -5.333333 158 99 81 
0.166667 -0.203704 -5.333333 160 101 85 
0.175926 -0.203704 -5.333333 161 100 82 
0.185185 -0.203704 -5.333333 157 96 79 
0.196262 -0.205607 -5.383178 161 98 80 
0.205607 -0.205607 -5.383178 168 107 89 
0.214953 -0.205607 -5.383178 173 112 92 
0.224299 -0.205607 -5.383178 169 111 89 
0.233645 -0.205607 -5.383178 172 118 94 
0.242991 -0.205607 -5.383178 172 120 98 
0.252336 -0.205607 -5.383178 174 128 104 
0.261682 -0.205607 -5.383178 172 126 102 
0.271028 -0.205607 -5.383178 172 125 99 
0.280374 -0.205607 -5.383178 168 118 91 
0.289720 -0.205607 -5.383178 166 115 86 
0.299065 -0.205607 -5.383178 167 116 87 
0.308411 -0.205607 -5.383178 176 125 98 
0.317757 -0.205607 -5.383178 176 125 98 
0.327103 -0.205607 -5.383178 180 129 102 
0.336449 -0.205607 -5.383178 181 130 103 
0.345794 -0.205607 -5.383178 184 133 106 
0.355140 -0.205607 -5.383178 189 135 109 
0.364486 -0.205607 -5.383178 186 132 107 
0.373832 -0.205607 -5.383178 187 133 109 
0.383178 -0.205607 -5.383178 191 137 111 
0.392523 -0.205607 -5.383178 190 136 110 
0.401869 -0.205607 -5.383178 188 137 110 
0.411215 -0.205607 -5.383178 190 136 110 
0.420561 -0.205607 -5.383178 196 142 116 
0.429907 -0.205607 -5.383178 192 138 112 
0.439252 -0.205607 -5.383178 193 139 118 
0.448598 -0.205607 -5.383178 198 146 124 
0.457944 -0.205607 -5.383178 192 140 118 
0.467290 -0.205607 -5.383178 191 141 116 
0.481132 -0.207547 -5.433962 191 139 115 
0.490566 -0.207547 -5.433962 193 143 119 
0.500000 -0.207547 -5.433962 191 141 114 
0.514286 -0.209524 -5.485714 193 143 118 
0.523810 -0.209524 -5.485714 189 141 116 
0.533333 -0.209524 -5.485714 193 146 120 
0.542857 -0.209524 -5.485714 193 146 120 
0.557692 -0.211538 -5.538462 194 144 117 
0.567308 -0.211538 -5.538462 197 150 124 
0.576923 -0.211538 -5.538462 198 149 124 
0.592233 -0.213592 -5.592233 195 146 123 
0.601942 -0.213592 -5.592233 195 147 124 
0.617647 -0.215686 -5.647059 193 144 121 
0.627451 -0.215686 -5.647059 192 142 120 
0.637255 -0.215686 -5.647059 192 143 120 
0.653465 -0.217822 -5.702971 188 136 112 
0.670000 -0.220000 -5.760000 188 138 115 
0.680000 -0.220000 -5.760000 186 135 111 
0.696970 -0.222222 -5.818182 184 134 111 
0.707071 -0.222222 -5.818182 183 136 115 
0.717172 -0.222222 -5.818182 172 125 103 
0.734694 -0.224490 -5.877551 168 122 98 
0.752577 -0.226804 -5.938144 173 129 105 
0.762887 -0.226804 -5.938144 165 121 96 
0.781250 -0.229167 -6.000000 167 125 105 
0.800000 -0.231579 -6.063158 165 119 98 
0.810526 -0.231579 -6.063158 161 115 94 
0.829787 -0.234043 -6.127660 158 116 92 
0.849462 -0.236559 -6.193548 157 115 92 
0.869565 -0.239130 -6.260870 153 112 89 
0.890110 -0.241758 -6.329670 153 114 92 
0.901099 -0.241758 -6.329670 158 122 110 
0.922222 -0.244444 -6.400000 140 94 83 
0.943820 -0.247191 -6.471910 138 110 103 
0.955056 -0.247191 -6.471910 132 123 122 
0.966292 -0.247191 -6.471910 108 92 91 
0.988636 -0.250000 -6.545455 152 144 143 
1.000000 -0.250000 -6.545455 191 191 191 
-1.022472 -0.258427 -6.471910 92 90 92 
-1.011236 -0.258427 -6.471910 44 40 39 
-0.988889 -0.255556 -6.400000 147 113 100 
-0.977778 -0.255556 -6.400000 165 117 97 
-0.956044 -0.252747 -6.329670 194 140 115 
-0.934783 -0.250000 -6.260870 195 137 112 
-0.923913 -0.250000 -6.260870 204 147 119 
-0.913043 -0.250000 -6.260870 187 131 100 
-0.882979 -0.244681 -6.127660 168 130 116 
-0.863158 -0.242105 -6.063158 166 120 100 
-0.852632 -0.242105 -6.063158 167 118 98 
-0.833333 -0.239583 -6.000000 176 128 112 
-0.814433 -0.237113 -5.938144 180 135 117 
-0.795918 -0.234694 -5.877551 185 140 123 
-0.777778 -0.232323 -5.818182 186 138 124 
-0.767677 -0.232323 -5.818182 186 135 117 
-0.750000 -0.230000 -5.760000 193 143 121 
-0.740000 -0.230000 -5.760000 195 144 125 
-0.722772 -0.227723 -5.702971 195 145 128 
-0.705882 -0.225490 -5.647059 197 147 130 
-0.696078 -0.225490 -5.647059 208 154 138 
-0.686275 -0.225490 -5.647059 207 156 136 
-0.676471 -0.225490 -5.647059 210 155 135 
-0.660194 -0.223301 -5.592233 206 151 130 
-0.650485 -0.223301 -5.592233 209 158 137 
-0.640777 -0.223301 -5.592233 204 146 124 
-0.631068 -0.223301 -5.592233 204 148 125 
-0.621359 -0.223301 -5.592233 204 153 134 
-0.605769 -0.221154 -5.538462 208 156 135 
-0.596154 -0.221154 -5.538462 202 150 129 
-0.586538 -0.221154 -5.538462 203 149 123 
-0.576923 -0.221154 -5.538462 201 149 128 
-0.567308 -0.221154 -5.538462 204 152 130 
-0.557692 -0.221154 -5.538462 205 149 124 
-0.542857 -0.219048 -5.485714 202 148 125 
-0.533333 -0.219048 -5.485714 202 150 126 
-0.523810 -0.219048 -5.485714 203 151 126 
-0.514286 -0.219048 -5.485714 198 144 118 
-0.504762 -0.219048 -5.485714 201 145 122 
-0.495238 -0.219048 -5.485714 197 142 121 
-0.481132 -0.216981 -5.433962 196 142 119 
-0.471698 -0.216981 -5.433962 198 144 120 
-0.462264 -0.216981 -5.433962 196 142 118 
-0.452830 -0.216981 -5.433962 194 138 115 
-0.443396 -0.216981 -5.433962 197 143 119 
-0.433962 -0.216981 -5.433962 196 142 118 
-0.424528 -0.216981 -5.433962 191 137 111 
-0.411215 -0.214953 -5.383178 191 137 110 
-0.401869 -0.214953 -5.383178 188 134 108 
-0.392523 -0.214953 -5.383178 183 130 107 
-0.383178 -0.214953 -5.383178 183 132 105 
-0.373832 -0.214953 -5.383178 178 127 102 
-0.364486 -0.214953 -5.383178 173 122 95 
-0.355140 -0.214953 -5.383178 176 122 96 
-0.342593 -0.212963 -5.333333 173 121 97 
-0.333333 -0.212963 -5.333333 179 128 104 
-0.324074 -0.212963 -5.333333 182 130 108 
-0.314815 -0.212963 -5.333333 185 130 109 
-0.305556 -0.212963 -5.333333 185 130 109 
-0.293578 -0.211009 -5.284404 183 123 104 
-0.284404 -0.211009 -5.284404 176 113 96 
-0.275229 -0.211009 -5.284404 179 116 99 
-0.266055 -0.211009 -5.284404 172 106 91 
-0.256881 -0.211009 -5.284404 162 95 80 
-0.247706 -0.211009 -5.284404 167 99 86 
-0.238532 -0.211009 -5.284404 175 109 93 
-0.229358 -0.211009 -5.284404 171 112 97 
-0.220183 -0.211009 -5.284404 168 106 93 
-0.211009 -0.211009 -5.284404 173 114 98 
-0.201835 -0.211009 -5.284404 176 122 104 
-0.192661 -0.211009 -5.284404 178 125 108 
-0.183486 -0.211009 -5.284404 173 119 102 
-0.174312 -0.211009 -5.284404 172 117 101 
-0.165138 -0.211009 -5.284404 169 111 99 
-0.155963 -0.211009 -5.284404 172 115 101 
-0.146789 -0.211009 -5.284404 175 127 107 
-0.137615 -0.211009 -5.284404 175 125 102 
-0.128440 -0.211009 -5.284404 173 124 98 
-0.119266 -0.211009 -5.284404 175 128 102 
-0.110092 -0.211009 -5.284404 175 127 105 
-0.100917 -0.211009 -5.284404 177 129 107 
-0.091743 -0.211009 -5.284404 173 126 103 
-0.082569 -0.211009 -5.284404 174 126 103 
-0.073394 -0.211009 -5.284404 170 122 99 
-0.064220 -0.211009 -5.284404 166 118 95 
-0.055046 -0.211009 -5.284404 156 109 89 
-0.045872 -0.211009 -5.284404 156 110 88 
-0.036697 -0.211009 -5.284404 158 113 92 
-0.027523 -0.211009 -5.284404 154 111 91 
-0.018349 -0.211009 -5.284404 155 110 89 
-0.009174 -0.211009 -5.284404 161 116 93 
0.000000 -0.211009 -5.284404 162 117 94 
0.009174 -0.211009 -5.284404 164 119 96 
0.018349 -0.211009 -5.284404 167 120 97 
0.027523 -0.211009 -5.284404 168 121 98 
0.036697 -0.211009 -5.284404 168 121 97 
0.045872 -0.211009 -5.284404 168 121 98 
0.055046 -0.211009 -5.284404 172 124 102 
0.064815 -0.212963 -5.333333 171 123 101 
0.074074 -0.212963 -5.333333 172 124 102 
0.083333 -0.212963 -5.333333 168 121 99 
0.092593 -0.212963 -5.333333 169 120 98 
0.101852 -0.212963 -5.333333 166 118 95 
0.111111 -0.212963 -5.333333 159 107 83 
0.120370 -0.212963 -5.333333 159 104 83 
0.129630 -0.212963 -5.333333 158 99 80 
0.138889 -0.212963 -5.333333 157 96 75 
0.148148 -0.212963 -5.333333 157 94 76 
0.157407 -0.212963 -5.333333 160 99 80 
0.166667 -0.212963 -5.333333 163 102 82 
0.177570 -0.214953 -5.383178 159 97 76 
0.186916 -0.214953 -5.383178 164 103 82 
0.196262 -0.214953 -5.383178 168 110 90 
0.205607 -0.214953 -5.383178 170 113 91 
0.214953 -0.214953 -5.383178 175 120 96 
0.224299 -0.214953 -5.383178 178 125 99 
0.233645 -0.214953 -5.383178 175 128 102 
0.242991 -0.214953 -5.383178 175 128 102 
0.252336 -0.214953 -5.383178 179 129 104 
0.261682 -0.214953 -5.383178 176 128 105 
0.271028 -0.214953 -5.383178 172 126 103 
0.280374 -0.214953 -5.383178 171 123 100 
0.289720 -0.214953 -5.383178 172 122 95 
0.299065 -0.214953 -5.383178 171 121 94 
0.308411 -0.214953 -5.383178 172 122 95 
0.317757 -0.214953 -5.383178 176 125 98 
0.327103 -0.214953 -5.383178 180 129 104 
0.336449 -0.214953 -5.383178 182 130 103 
0.345794 -0.214953 -5.383178 184 130 104 
0.355140 -0.214953 -5.383178 186 132 106 
0.364486 -0.214953 -5.383178 189 135 109 
0.373832 -0.214953 -5.383178 186 135 108 
0.383178 -0.214953 -5.383178 182 131 104 
0.392523 -0.214953 -5.383178 186 135 108 
0.401869 -0.214953 -5.383178 191 140 114 
0.411215 -0.214953 -5.383178 193 139 113 
0.420561 -0.214953 -5.383178 187 136 109 
0.429907 -0.214953 -5.383178 188 138 112 
0.439252 -0.214953 -5.383178 192 140 116 
0.448598 -0.214953 -5.383178 193 144 119 
0.457944 -0.214953 -5.383178 191 145 119 
0.471698 -0.216981 -5.433962 187 137 109 
0.481132 -0.216981 -5.433962 191 136 107 
0.490566 -0.216981 -5.433962 191 144 119 
0.500000 -0.216981 -5.433962 186 134 105 
0.514286 -0.219048 -5.485714 193 144 120 
0.523810 -0.219048 -5.485714 188 137 114 
0.533333 -0.219048 -5.485714 193 143 118 
0.542857 -0.219048 -5.485714 192 145 119 
0.557692 -0.221154 -5.538462 192 141 114 
0.567308 -0.221154 -5.538462 193 143 118 
0.576923 -0.221154 -5.538462 194 147 123 
0.592233 -0.223301 -5.592233 193 143 118 
0.601942 -0.223301 -5.592233 192 141 116 
0.617647 -0.225490 -5.647059 191 140 118 
0.627451 -0.225490 -5.647059 189 138 117 
0.637255 -0.225490 -5.647059 193 138 118 
0.653465 -0.227723 -5.702971 188 137 116 
0.670000 -0.230000 -5.760000 186 137 116 
0.680000 -0.230000 -5.760000 185 134 111 
0.696970 -0.232323 -5.818182 184 135 113 
0.707071 -0.232323 -5.818182 183 137 116 
0.717172 -0.232323 -5.818182 178 131 109 
0.734694 -0.234694 -5.877551 174 128 104 
0.752577 -0.237113 -5.938144 170 124 100 
0.762887 -0.237113 -5.938144 168 122 98 
0.781250 -0.239583 -6.000000 163 121 99 
0.800000 -0.242105 -6.063158 163 118 96 
0.810526 -0.242105 -6.063158 156 113 91 
0.829787 -0.244681 -6.127660 158 116 91 
0.858696 -0.250000 -6.260870 156 113 88 
0.869565 -0.250000 -6.260870 154 114 93 
0.890110 -0.252747 -6.329670 176 148 133 
0.943820 -0.258427 -6.471910 226 215 212 
0.955056 -0.258427 -6.471910 223 212 209 
-1.034091 -0.272727 -6.545455 210 203 202 
-1.011236 -0.269663 -6.471910 41 35 37 
-1.000000 -0.269663 -6.471910 46 38 38 
-0.977778 -0.266667 -6.400000 99 61 48 
-0.966667 -0.266667 -6.400000 177 127 106 
-0.945055 -0.263736 -6.329670 185 128 103 
-0.923913 -0.260870 -6.260870 190 133 106 
-0.913043 -0.260870 -6.260870 183 125 97 
-0.892473 -0.258065 -6.193548 164 129 119 
-0.872340 -0.255319 -6.127660 167 121 102 
-0.852632 -0.252632 -6.063158 170 120 99 
-0.833333 -0.250000 -6.000000 174 128 108 
-0.814433 -0.247423 -5.938144 177 133 115 
-0.795918 -0.244898 -5.877551 183 138 123 
-0.777778 -0.242424 -5.818182 186 140 123 
-0.767677 -0.242424 -5.818182 186 136 118 
-0.750000 -0.240000 -5.760000 193 143 124 
-0.740000 -0.240000 -5.760000 186 136 114 
-0.722772 -0.237624 -5.702971 194 145 129 
-0.705882 -0.235294 -5.647059 197 145 126 
-0.696078 -0.235294 -5.647059 202 150 130 
-0.686275 -0.235294 -5.647059 206 156 136 
-0.676471 -0.235294 -5.647059 211 158 137 
-0.660194 -0.233010 -5.592233 207 153 132 
-0.650485 -0.233010 -5.592233 209 154 134 
-0.640777 -0.233010 -5.592233 206 150 128 
-0.631068 -0.233010 -5.592233 198 136 112 
-0.621359 -0.233010 -5.592233 208 153 133 
-0.611650 -0.233010 -5.592233 209 157 136 
-0.596154 -0.230769 -5.538462 209 157 136 
-0.586538 -0.230769 -5.538462 211 157 133 
-0.576923 -0.230769 -5.538462 203 151 130 
-0.567308 -0.230769 -5.538462 205 149 126 
-0.557692 -0.230769 -5.538462 198 141 115 
-0.542857 -0.228571 -5.485714 203 147 124 
-0.533333 -0.228571 -5.485714 201 145 122 
-0.523810 -0.228571 -5.485714 196 140 115 
-0.514286 -0.228571 -5.485714 196 140 115 
-0.504762 -0.228571 -5.485714 196 142 116 
-0.495238 -0.228571 -5.485714 202 148 124 
-0.481132 -0.226415 -5.433962 197 143 119 
-0.471698 -0.226415 -5.433962 195 141 117 
-0.462264 -0.226415 -5.433962 195 141 117 
-0.452830 -0.226415 -5.433962 192 136 113 
-0.443396 -0.226415 -5.433962 192 136 113 
-0.433962 -0.226415 -5.433962 189 133 110 
-0.424528 -0.226415 -5.433962 190 137 111 
-0.411215 -0.224299 -5.383178 188 137 109 
-0.401869 -0.224299 -5.383178 184 132 105 
-0.392523 -0.224299 -5.383178 189 136 114 
-0.383178 -0.224299 -5.383178 178 127 100 
-0.373832 -0.224299 -5.383178 179 128 99 
-0.364486 -0.224299 -5.383178 177 125 101 
-0.355140 -0.224299 -5.383178 173 120 96 
-0.342593 -0.222222 -5.333333 181 129 106 
-0.333333 -0.222222 -5.333333 185 135 112 
-0.324074 -0.222222 -5.333333 187 137 114 
-0.314815 -0.222222 -5.333333 185 133 111 
-0.305556 -0.222222 -5.333333 186 134 112 
-0.296296 -0.222222 -5.333333 184 128 105 
-0.284404 -0.220183 -5.284404 181 123 103 
-0.275229 -0.220183 -5.284404 181 118 101 
-0.266055 -0.220183 -5.284404 178 112 96 
-0.256881 -0.220183 -5.284404 173 103 88 
-0.247706 -0.220183 -5.284404 166 100 84 
-0.238532 -0.220183 -5.284404 171 110 92 
-0.229358 -0.220183 -5.284404 171 107 93 
-0.220183 -0.220183 -5.284404 171 104 92 
-0.211009 -0.220183 -5.284404 169 109 95 
-0.201835 -0.220183 -5.284404 176 117 101 
-0.192661 -0.220183 -5.284404 177 121 104 
-0.183486 -0.220183 -5.284404 174 116 97 
-0.174312 -0.220183 -5.284404 171 117 99 
-0.165138 -0.220183 -5.284404 173 117 102 
-0.155963 -0.220183 -5.284404 174 122 103 
-0.146789 -0.220183 -5.284404 178 130 110 
-0.137615 -0.220183 -5.284404 178 130 108 
-0.128440 -0.220183 -5.284404 180 131 108 
-0.119266 -0.220183 -5.284404 177 129 106 
-0.110092 -0.220183 -5.284404 178 130 107 
-0.100917 -0.220183 -5.284404 177 129 106 
-0.091743 -0.220183 -5.284404 175 129 105 
-0.082569 -0.220183 -5.284404 174 126 103 
-0.073394 -0.220183 -5.284404 171 121 98 
-0.064220 -0.220183 -5.284404 164 115 92 
-0.055046 -0.220183 -5.284404 164 116 93 
-0.045872 -0.220183 -5.284404 161 115 91 
-0.036697 -0.220183 -5.284404 158 112 89 
-0.027523 -0.220183 -5.284404 156 111 88 
-0.018349 -0.220183 -5.284404 161 116 93 
-0.009174 -0.220183 -5.284404 167 122 99 
0.000000 -0.220183 -5.284404 169 124 101 
0.009174 -0.220183 -5.284404 171 126 103 
0.018349 -0.220183 -5.284404 173 128 105 
0.027523 -0.220183 -5.284404 174 128 105 
0.036697 -0.220183 -5.284404 174 126 104 
0.045872 -0.220183 -5.284404 168 122 99 
0.055046 -0.220183 -5.284404 169 123 100 
0.064220 -0.220183 -5.284404 171 125 102 
0.073394 -0.220183 -5.284404 171 123 101 
0.082569 -0.220183 -5.284404 172 124 102 
0.092593 -0.222222 -5.333333 171 123 100 
0.101852 -0.222222 -5.333333 172 122 99 
0.111111 -0.222222 -5.333333 166 116 91 
0.120370 -0.222222 -5.333333 168 116 92 
0.129630 -0.222222 -5.333333 163 108 87 
0.138889 -0.222222 -5.333333 162 106 85 
0.148148 -0.222222 -5.333333 163 102 83 
0.157407 -0.222222 -5.333333 164 103 83 
0.168224 -0.224299 -5.383178 163 102 81 
0.177570 -0.224299 -5.383178 166 104 80 
0.186916 -0.224299 -5.383178 171 111 87 
0.196262 -0.224299 -5.383178 174 118 93 
0.205607 -0.224299 -5.383178 176 122 96 
0.214953 -0.224299 -5.383178 175 121 95 
0.224299 -0.224299 -5.383178 178 124 96 
0.233645 -0.224299 -5.383178 178 125 97 
0.242991 -0.224299 -5.383178 175 125 98 
0.252336 -0.224299 -5.383178 178 131 105 
0.261682 -0.224299 -5.383178 175 127 104 
0.271028 -0.224299 -5.383178 178 133 112 
0.280374 -0.224299 -5.383178 172 128 104 
0.289720 -0.224299 -5.383178 169 122 96 
0.299065 -0.224299 -5.383178 173 122 95 
0.308411 -0.224299 -5.383178 173 123 98 
0.317757 -0.224299 -5.383178 174 124 99 
0.327103 -0.224299 -5.383178 176 125 98 
0.336449 -0.224299 -5.383178 181 127 100 
0.345794 -0.224299 -5.383178 180 126 98 
0.355140 -0.224299 -5.383178 180 124 97 
0.364486 -0.224299 -5.383178 185 131 103 
0.373832 -0.224299 -5.383178 187 137 110 
0.383178 -0.224299 -5.383178 187 137 112 
0.392523 -0.224299 -5.383178 189 140 117 
0.401869 -0.224299 -5.383178 188 136 110 
0.411215 -0.224299 -5.383178 190 136 112 
0.420561 -0.224299 -5.383178 192 141 116 
0.429907 -0.224299 -5.383178 192 143 118 
0.439252 -0.224299 -5.383178 188 134 106 
0.448598 -0.224299 -5.383178 188 132 105 
0.457944 -0.224299 -5.383178 189 133 106 
0.471698 -0.226415 -5.433962 190 136 106 
0.481132 -0.226415 -5.433962 193 142 114 
0.490566 -0.226415 -5.433962 188 140 114 
0.500000 -0.226415 -5.433962 191 142 112 
0.514286 -0.228571 -5.485714 193 143 118 
0.523810 -0.228571 -5.485714 195 145 120 
0.533333 -0.228571 -5.485714 193 143 116 
0.542857 -0.228571 -5.485714 193 144 116 
0.557692 -0.230769 -5.538462 189 138 109 
0.567308 -0.230769 -5.538462 190 141 111 
0.576923 -0.230769 -5.538462 194 147 119 
0.592233 -0.233010 -5.592233 193 144 115 
0.601942 -0.233010 -5.592233 190 139 114 
0.617647 -0.235294 -5.647059 195 144 122 
0.627451 -0.235294 -5.647059 191 140 118 
0.637255 -0.235294 -5.647059 188 135 111 
0.653465 -0.237624 -5.702971 188 135 115 
0.670000 -0.240000 -5.760000 185 136 116 
0.680000 -0.240000 -5.760000 182 132 109 
0.696970 -0.242424 -5.818182 180 131 109 
0.707071 -0.242424 -5.818182 182 136 115 
0.724490 -0.244898 -5.877551 177 132 109 
0.734694 -0.244898 -5.877551 173 127 103 
0.752577 -0.247423 -5.938144 165 117 90 
0.762887 -0.247423 -5.938144 168 121 98 
0.781250 -0.250000 -6.000000 167 123 104 
0.800000 -0.252632 -6.063158 160 114 93 
0.810526 -0.252632 -6.063158 159 117 95 
0.829787 -0.255319 -6.127660 157 117 90 
0.858696 -0.260870 -6.260870 160 117 93 
0.869565 -0.260870 -6.260870 155 115 93 
0.890110 -0.263736 -6.329670 177 150 136 
-1.000000 -0.280899 -6.471910 146 141 143 
-0.988764 -0.280899 -6.471910 46 37 37 
-0.966667 -0.277778 -6.400000 64 38 31 
-0.955556 -0.277778 -6.400000 135 90 77 
-0.934066 -0.274725 -6.329670 135 93 81 
-0.913043 -0.271739 -6.260870 133 93 79 
-0.902174 -0.271739 -6.260870 162 134 124 
-0.872340 -0.265957 -6.127660 167 122 103 
-0.852632 -0.263158 -6.063158 168 120 101 
-0.833333 -0.260417 -6.000000 171 123 102 
-0.814433 -0.257732 -5.938144 178 130 113 
-0.795918 -0.255102 -5.877551 178 133 117 
-0.777778 -0.252525 -5.818182 184 135 117 
-0.767677 -0.252525 -5.818182 188 139 121 
-0.750000 -0.250000 -5.760000 191 141 123 
-0.740000 -0.250000 -5.760000 195 145 123 
-0.722772 -0.247525 -5.702971 188 135 117 
-0.705882 -0.245098 -5.647059 198 146 127 
-0.696078 -0.245098 -5.647059 203 149 130 
-0.686275 -0.245098 -5.647059 203 152 131 
-0.676471 -0.245098 -5.647059 204 151 128 
-0.666667 -0.245098 -5.647059 209 156 132 
-0.650485 -0.242718 -5.592233 209 154 132 
-0.640777 -0.242718 -5.592233 204 149 129 
-0.631068 -0.242718 -5.592233 206 149 126 
-0.621359 -0.242718 -5.592233 206 151 131 
-0.611650 -0.242718 -5.592233 207 154 136 
-0.596154 -0.240385 -5.538462 207 155 134 
-0.586538 -0.240385 -5.538462 207 150 130 
-0.576923 -0.240385 -5.538462 204 153 132 
-0.567308 -0.240385 -5.538462 203 149 125 
-0.557692 -0.240385 -5.538462 201 146 120 
-0.542857 -0.238095 -5.485714 199 148 122 
-0.533333 -0.238095 -5.485714 201 148 125 
-0.523810 -0.238095 -5.485714 199 144 119 
-0.514286 -0.238095 -5.485714 199 144 120 
-0.504762 -0.238095 -5.485714 197 141 116 
-0.495238 -0.238095 -5.485714 196 140 114 
-0.481132 -0.235849 -5.433962 197 143 119 
-0.471698 -0.235849 -5.433962 193 137 112 
-0.462264 -0.235849 -5.433962 196 140 115 
-0.452830 -0.235849 -5.433962 190 134 109 
-0.443396 -0.235849 -5.433962 190 134 109 
-0.433962 -0.235849 -5.433962 185 131 107 
-0.424528 -0.235849 -5.433962 194 140 115 
-0.411215 -0.233645 -5.383178 193 139 113 
-0.401869 -0.233645 -5.383178 180 129 102 
-0.392523 -0.233645 -5.383178 186 134 109 
-0.383178 -0.233645 -5.383178 179 129 102 
-0.373832 -0.233645 -5.383178 181 132 102 
-0.364486 -0.233645 -5.383178 180 130 105 
-0.355140 -0.233645 -5.383178 177 125 101 
-0.342593 -0.231481 -5.333333 182 132 107 
-0.333333 -0.231481 -5.333333 183 132 111 
-0.324074 -0.231481 -5.333333 188 137 116 
-0.314815 -0.231481 -5.333333 187 139 117 
-0.305556 -0.231481 -5.333333 188 136 114 
-0.296296 -0.231481 -5.333333 188 133 112 
-0.287037 -0.231481 -5.333333 183 125 105 
-0.277778 -0.231481 -5.333333 185 124 103 
-0.266055 -0.229358 -5.284404 177 115 94 
-0.256881 -0.229358 -5.284404 177 110 93 
-0.247706 -0.229358 -5.284404 174 109 90 
-0.238532 -0.229358 -5.284404 171 103 82 
-0.229358 -0.229358 -5.284404 168 99 83 
-0.220183 -0.229358 -5.284404 169 101 82 
-0.211009 -0.229358 -5.284404 170 105 87 
-0.201835 -0.229358 -5.284404 173 112 93 
-0.192661 -0.229358 -5.284404 173 112 93 
-0.183486 -0.229358 -5.284404 174 114 95 
-0.174312 -0.229358 -5.284404 177 121 103 
-0.165138 -0.229358 -5.284404 180 128 112 
-0.155963 -0.229358 -5.284404 178 130 110 
-0.146789 -0.229358 -5.284404 179 131 109 
-0.137615 -0.229358 -5.284404 178 130 108 
-0.128440 -0.229358 -5.284404 176 127 104 
-0.119266 -0.229358 -5.284404 180 130 103 
-0.110092 -0.229358 -5.284404 177 127 100 
-0.100917 -0.229358 -5.284404 179 130 104 
-0.091743 -0.229358 -5.284404 178 132 108 
-0.082569 -0.229358 -5.284404 171 121 96 
-0.073394 -0.229358 -5.284404 169 116 91 
-0.064220 -0.229358 -5.284404 168 117 89 
-0.055046 -0.229358 -5.284404 168 121 93 
-0.045872 -0.229358 -5.284404 161 115 89 
-0.036697 -0.229358 -5.284404 162 116 93 
-0.027523 -0.229358 -5.284404 161 116 95 
-0.018349 -0.229358 -5.284404 162 120 100 
-0.009174 -0.229358 -5.284404 169 124 101 
0.000000 -0.229358 -5.284404 174 129 106 
0.009174 -0.229358 -5.284404 175 130 107 
0.018349 -0.229358 -5.284404 175 128 108 
0.027523 -0.229358 -5.284404 173 127 104 
0.036697 -0.229358 -5.284404 174 128 105 
0.045872 -0.229358 -5.284404 171 126 103 
0.055046 -0.229358 -5.284404 172 127 103 
0.064220 -0.229358 -5.284404 175 129 105 
0.073394 -0.229358 -5.284404 169 121 98 
0.082569 -0.229358 -5.284404 171 123 100 
0.091743 -0.229358 -5.284404 171 123 101 
0.101852 -0.231481 -5.333333 171 122 99 
0.111111 -0.231481 -5.333333 167 117 94 
0.120370 -0.231481 -5.333333 166 116 93 
0.129630 -0.231481 -5.333333 170 120 95 
0.138889 -0.231481 -5.333333 167 115 93 
0.148148 -0.231481 -5.333333 167 115 93 
0.157407 -0.231481 -5.333333 169 111 91 
0.166667 -0.231481 -5.333333 172 114 94 
0.177570 -0.233645 -5.383178 172 114 93 
0.186916 -0.233645 -5.383178 174 118 95 
0.196262 -0.233645 -5.383178 177 125 104 
0.205607 -0.233645 -5.383178 178 127 100 
0.214953 -0.233645 -5.383178 177 121 95 
0.224299 -0.233645 -5.383178 174 123 94 
0.233645 -0.233645 -5.383178 176 125 96 
0.242991 -0.233645 -5.383178 175 125 98 
0.252336 -0.233645 -5.383178 177 130 104 
0.261682 -0.233645 -5.383178 179 131 108 
0.271028 -0.233645 -5.383178 175 129 105 
0.280374 -0.233645 -5.383178 173 128 105 
0.289720 -0.233645 -5.383178 170 124 100 
0.299065 -0.233645 -5.383178 173 123 96 
0.308411 -0.233645 -5.383178 171 124 96 
0.317757 -0.233645 -5.383178 173 123 96 
0.327103 -0.233645 -5.383178 176 125 97 
0.336449 -0.233645 -5.383178 177 123 95 
0.345794 -0.233645 -5.383178 181 127 99 
0.355140 -0.233645 -5.383178 181 130 103 
0.364486 -0.233645 -5.383178 185 134 107 
0.373832 -0.233645 -5.383178 188 137 110 
0.383178 -0.233645 -5.383178 185 135 108 
0.392523 -0.233645 -5.383178 193 143 118 
0.401869 -0.233645 -5.383178 191 139 111 
0.411215 -0.233645 -5.383178 189 139 114 
0.420561 -0.233645 -5.383178 189 139 114 
0.429907 -0.233645 -5.383178 188 138 113 
0.439252 -0.233645 -5.383178 183 131 104 
0.448598 -0.233645 -5.383178 188 132 103 
0.457944 -0.233645 -5.383178 188 136 114 
0.471698 -0.235849 -5.433962 186 134 110 
0.481132 -0.235849 -5.433962 189 139 114 
0.490566 -0.235849 -5.433962 191 141 116 
0.500000 -0.235849 -5.433962 193 143 116 
0.514286 -0.238095 -5.485714 193 144 114 
0.523810 -0.238095 -5.485714 192 142 115 
0.533333 -0.238095 -5.485714 192 142 115 
0.542857 -0.238095 -5.485714 191 140 112 
0.557692 -0.240385 -5.538462 191 140 113 
0.567308 -0.240385 -5.538462 192 142 117 
0.576923 -0.240385 -5.538462 193 146 120 
0.592233 -0.242718 -5.592233 192 142 116 
0.601942 -0.242718 -5.592233 191 140 114 
0.617647 -0.245098 -5.647059 187 136 112 
0.627451 -0.245098 -5.647059 189 135 115 
0.637255 -0.245098 -5.647059 187 131 107 
0.653465 -0.247525 -5.702971 185 130 111 
0.670000 -0.250000 -5.760000 184 135 114 
0.680000 -0.250000 -5.760000 187 134 111 
0.696970 -0.252525 -5.818182 181 133 111 
0.707071 -0.252525 -5.818182 183 137 116 
0.724490 -0.255102 -5.877551 173 128 103 
0.734694 -0.255102 -5.877551 171 126 104 
0.752577 -0.257732 -5.938144 168 123 100 
0.762887 -0.257732 -5.938144 164 120 95 
0.781250 -0.260417 -6.000000 164 121 100 
0.800000 -0.263158 -6.063158 161 115 94 
0.810526 -0.263158 -6.063158 162 120 96 
0.829787 -0.265957 -6.127660 157 116 92 
0.858696 -0.271739 -6.260870 156 117 92 
0.869565 -0.271739 -6.260870 149 106 83 
0.890110 -0.274725 -6.329670 200 181 171 
-0.977528 -0.292135 -6.471910 141 138 138 
-0.966292 -0.292135 -6.471910 140 136 137 
-0.944444 -0.288889 -6.400000 199 196 197 
-0.923077 -0.285714 -6.329670 219 208 206 
-0.902174 -0.282609 -6.260870 231 221 217 
-0.881720 -0.279570 -6.193548 167 121 103 
-0.852632 -0.273684 -6.063158 169 122 104 
-0.842105 -0.273684 -6.063158 172 124 103 
-0.814433 -0.268041 -5.938144 176 129 109 
-0.795918 -0.265306 -5.877551 178 132 116 
-0.777778 -0.262626 -5.818182 184 137 119 
-0.767677 -0.262626 -5.818182 189 142 123 
-0.750000 -0.260000 -5.760000 188 138 120 
-0.740000 -0.260000 -5.760000 191 143 122 
-0.722772 -0.257426 -5.702971 197 147 125 
-0.705882 -0.254902 -5.647059 201 150 131 
-0.696078 -0.254902 -5.647059 196 144 125 
-0.686275 -0.254902 -5.647059 203 150 130 
-0.676471 -0.254902 -5.647059 211 157 138 
-0.666667 -0.254902 -5.647059 207 154 130 
-0.650485 -0.252427 -5.592233 209 157 138 
-0.640777 -0.252427 -5.592233 208 155 137 
-0.631068 -0.252427 -5.592233 205 149 131 
-0.621359 -0.252427 -5.592233 206 154 133 
-0.611650 -0.252427 -5.592233 205 153 132 
-0.596154 -0.250000 -5.538462 203 151 129 
-0.586538 -0.250000 -5.538462 202 148 124 
-0.576923 -0.250000 -5.538462 202 150 128 
-0.567308 -0.250000 -5.538462 202 146 121 
-0.557692 -0.250000 -5.538462 197 141 116 
-0.542857 -0.247619 -5.485714 198 144 120 
-0.533333 -0.247619 -5.485714 200 146 122 
-0.523810 -0.247619 -5.485714 201 145 122 
-0.514286 -0.247619 -5.485714 201 149 125 
-0.504762 -0.247619 -5.485714 199 146 122 
-0.495238 -0.247619 -5.485714 197 141 116 
-0.481132 -0.245283 -5.433962 196 142 118 
-0.471698 -0.245283 -5.433962 197 141 116 
-0.462264 -0.245283 -5.433962 193 137 112 
-0.452830 -0.245283 -5.433962 191 135 110 
-0.443396 -0.245283 -5.433962 194 138 113 
-0.433962 -0.245283 -5.433962 191 137 111 
-0.424528 -0.245283 -5.433962 190 137 111 
-0.411215 -0.242991 -5.383178 186 135 108 
-0.401869 -0.242991 -5.383178 190 139 112 
-0.392523 -0.242991 -5.383178 178 127 100 
-0.383178 -0.242991 -5.383178 177 126 97 
-0.373832 -0.242991 -5.383178 182 131 102 
-0.364486 -0.242991 -5.383178 182 132 107 
-0.355140 -0.242991 -5.383178 181 133 110 
-0.342593 -0.240741 -5.333333 186 138 115 
-0.333333 -0.240741 -5.333333 184 136 113 
-0.324074 -0.240741 -5.333333 188 139 117 
-0.314815 -0.240741 -5.333333 192 142 121 
-0.305556 -0.240741 -5.333333 193 143 122 
-0.296296 -0.240741 -5.333333 187 139 119 
-0.287037 -0.240741 -5.333333 191 137 117 
-0.277778 -0.240741 -5.333333 186 131 111 
-0.266055 -0.238532 -5.284404 184 123 104 
-0.256881 -0.238532 -5.284404 183 120 100 
-0.247706 -0.238532 -5.284404 186 119 100 
-0.238532 -0.238532 -5.284404 184 122 101 
-0.229358 -0.238532 -5.284404 179 114 94 
-0.220183 -0.238532 -5.284404 178 115 97 
-0.211009 -0.238532 -5.284404 177 115 92 
-0.201835 -0.238532 -5.284404 177 115 94 
-0.192661 -0.238532 -5.284404 177 117 96 
-0.183486 -0.238532 -5.284404 181 124 104 
-0.174312 -0.238532 -5.284404 182 132 113 
-0.165138 -0.238532 -5.284404 179 132 114 
-0.155963 -0.238532 -5.284404 178 130 110 
-0.146789 -0.238532 -5.284404 175 127 105 
-0.137615 -0.238532 -5.284404 181 133 113 
-0.128440 -0.238532 -5.284404 179 131 108 
-0.119266 -0.238532 -5.284404 177 130 104 
-0.110092 -0.238532 -5.284404 178 131 105 
-0.100917 -0.238532 -5.284404 178 130 106 
